   0.5279369548    0.3079157266    0.7914988800
  -0.3598929866   -0.6186314808    0.6984068508
  -0.5097021122    0.7811320213   -0.3606057710
  -0.8811165840    0.4728970245   -0.0014034178
  -0.2417093356    0.4185973955   -0.8754157970
   0.2253772692    0.2179468669    0.9495810917
  -0.1153812869   -0.3989593224    0.9096805031
  -0.3166096114   -0.9229551157   -0.2188885750
   0.0545470733   -0.0966158140    0.9938259411
   0.4145406586   -0.8853193569   -0.2106316185
   0.8485348397   -0.5008361053    0.1707390447
  -0.7581035329    0.3160250806    0.5704447228
   0.5960253418   -0.3456012555    0.7247851848
  -0.9400014833    0.2316214693    0.2504969190
   0.9297983531    0.1056949371    0.3525671609
  -0.7737851118   -0.4677262539   -0.4271870225
   0.3876206902    0.5949289100   -0.7041376233
   0.2390113378   -0.9673332788    0.0844979771
  -0.1473367001    0.0980129745   -0.9842181433
  -0.2051000072    0.8405645965    0.5013832328
   0.7610842498    0.3843330592    0.5225312090
   0.1647940113    0.5523677849    0.8171491688
  -0.4109222929   -0.1649435229   -0.8966250629
  -0.4707023130    0.3298987871    0.8182946430
   0.9804998517   -0.1780138136    0.0832533664
  -0.1219503683    0.2980360679    0.9467325968
  -0.5933760851    0.4705994326   -0.6530244985
  -0.9275466769   -0.1327783551   -0.3493237333
   0.2825016179   -0.7992915591   -0.5304015831
  -0.4541433675   -0.7279819229   -0.5136108660
  -0.8886920684   -0.3570164733    0.2876901899
   0.6621477265   -0.7493721930   -0.0013056129
   0.0401886980    0.9918040173   -0.1212833867
   0.4781266021   -0.8249094428    0.3015283795
   0.0331582802    0.6879617639   -0.7249890619
   0.8696477430    0.4620431977    0.1738645636
  -0.2412717919   -0.5534037625   -0.7972027334
  -0.5615717524   -0.4326288015   -0.7053151686
  -0.0369468174    0.9748993244    0.2195591948
   0.2191779728    0.0374137344   -0.9749672962
   0.0464426534   -0.9675408440   -0.2484105376
   0.6396479767   -0.6587672597   -0.3960759568
   0.2701297338   -0.3181727376   -0.9087332039
  -0.4586815603   -0.2990757367    0.8367585852
   0.5650090410    0.7293215647   -0.3858171056
  -0.6508131634    0.0069834641    0.7592058072
  -0.3196808868    0.9455190606   -0.0616265905
   0.8283314548    0.5231054735   -0.2005683540
  -0.3170542550    0.6883529373   -0.6524161503
  -0.1874629593    0.6105393005    0.7694799552
   0.0024234453   -0.6959873016    0.7180500003
  -0.9645297159    0.1854085681   -0.1878991487
  -0.4589448630    0.8488859129    0.2622257035
   0.8584153985   -0.2426482468    0.4519345439
  -0.3043786217   -0.0046827159    0.9525396196
   0.1491488440    0.8208488870    0.5513272413
   0.9480647500   -0.1284935697   -0.2909684387
   0.9080921755    0.2213584938   -0.3554842022
  -0.1046243451   -0.8283844646   -0.5503025761
  -0.8797324179   -0.0439252635    0.4734357866
   0.3326413199    0.9082661397    0.2537762236
  -0.5276014817    0.1679452733   -0.8327250817
  -0.7102871288   -0.3670578061    0.6006336335
   0.7734537251    0.0538016184   -0.6315652943
   0.6712784369   -0.5775066371    0.4646195694
   0.5537554333   -0.1339111534   -0.8218410570
   0.9848464172    0.1731680277   -0.0095062455
   0.6934044383    0.4347181365   -0.5746393885
  -0.2498991211   -0.8614711618    0.4420609309
   0.4554326484    0.6318333949    0.6271902932
   0.7690199430   -0.3214278036   -0.5525327993
  -0.9103437553   -0.4021018001   -0.0979203221
  -0.7335536676   -0.1174862988   -0.6693997209
  -0.9948653086   -0.0777222368    0.0648249307
   0.4919685363   -0.5206290780   -0.6977910307
  -0.7443436319    0.5889736283    0.3147421529
  -0.6539306521    0.7558710469   -0.0321506251
  -0.1191841683   -0.9867846715    0.1097777126
  -0.5955794839   -0.6740332315    0.4369946008
  -0.0728578534   -0.2661818394   -0.9611654184
   0.8641868138   -0.4641372615   -0.1943135438
   0.7342404333    0.0208825911    0.6785682748
  -0.4658498971   -0.8758834781    0.1257458002
  -0.7541949390   -0.6453192162    0.1214623532
   0.1179809153   -0.8953254723    0.4295029713
  -0.8199198094    0.2009600655   -0.5360471605
  -0.1449539238    0.8983724638   -0.4146266709
   0.4933290127    0.2492140503   -0.8333779709
   0.2259863523    0.8593132507   -0.4588146747
   0.1100804286   -0.6128525527   -0.7824922031
  -0.7798471195    0.5227910048   -0.3442790083
   0.1355409078    0.3859118323   -0.9125243668
   0.6261381157    0.7003449393    0.3427360882
   0.6554627610    0.7552263906    0.0012914554
   0.3719661445    0.9217573711   -0.1095652138
   0.4357121662   -0.0742439995    0.8970188051
   0.3609341290   -0.6760649076    0.6423883524
  -0.5145119233    0.6231646710    0.5890189077
   0.2530091270   -0.4125786829    0.8750801175
  -0.6473869818   -0.7340790853   -0.2049829073
