   0.3555915565   -0.7031756257   -0.6157099028
   0.0938779347   -0.0021324296    0.9955814312
  -0.1589856703   -0.5910651937   -0.7908005396
   0.4661137341   -0.4476806672   -0.7630989497
   0.4022555067   -0.6148344581    0.6783576465
  -0.2867004587    0.9462617319    0.1496381693
   0.2798717419   -0.2725706487   -0.9205308520
  -0.7742859782    0.6269283303   -0.0862675638
  -0.1779901942   -0.9328596953    0.3131968703
   0.0254205266   -0.9880726296   -0.1518758557
   0.5138243216   -0.7944970503   -0.3236649558
  -0.1702446111    0.4589300400    0.8720091690
  -0.0977684793    0.4499941286   -0.8876635673
   0.7881299929    0.3250984953    0.5226491009
   0.4197031659    0.8242739405   -0.3800285825
   0.9636340809    0.2237291423   -0.1461322309
  -0.9905772088    0.1081157021   -0.0840701392
   0.6047543292    0.2261455815    0.7636297383
   0.9156991161   -0.3697559474   -0.1574028849
   0.8615053204    0.5028513955   -0.0703495351
   0.0400712727    0.8107330071    0.5840430500
   0.1210340778    0.3214295620    0.9391665394
  -0.7404351786   -0.0543766980    0.6699245637
  -0.8367528945   -0.2294079894   -0.4972087770
  -0.1351726706    0.1775337563    0.9747872150
   0.3331584284    0.6884723731    0.6442136703
  -0.8588210203   -0.4266233532   -0.2835823859
   0.7417655930   -0.6319084997   -0.2246674277
  -0.4545534985    0.6839709758   -0.5705828785
  -0.6278508271   -0.3043448366   -0.7163641248
  -0.8477314989    0.1759983589    0.5003757423
   0.4916106021    0.8466493462    0.2037250608
  -0.5058875531   -0.7571176322   -0.4133408697
   0.3188156168   -0.1853712516    0.9295128302
  -0.7352749924    0.5655367065   -0.3735490853
  -0.7369091121    0.6379976437    0.2234367184
  -0.1320166306   -0.8018411318    0.5827713176
  -0.6994313860    0.4874448882    0.5226788854
   0.2482362245   -0.8838676709   -0.3964299650
  -0.2835370717   -0.9203698199   -0.2693067463
   0.1725459910   -0.5376048283   -0.8253538208
   0.5818202367   -0.0745424482    0.8098942126
  -0.5086360604   -0.0643354549   -0.8585745788
   0.0882948645    0.5969625746    0.7973955740
   0.6061154415    0.6032492174   -0.5183767483
  -0.9702335501    0.1232067682    0.2084872911
  -0.0378899971    0.9992804653   -0.0017028808
  -0.2591101425   -0.7769659439   -0.5737472058
   0.9311606851    0.3316290955    0.1515319161
   0.9119125828   -0.1613531107    0.3773335593
   0.5712291720    0.6985852980    0.4309011657
  -0.9783348935   -0.1717558679    0.1155887455
  -0.2894146527   -0.3657677422    0.8845638007
   0.9955769057    0.0208520629    0.0916068577
  -0.6550585684    0.2446337960    0.7148794149
   0.0044236058    0.9534323993    0.3015743552
   0.7129119291    0.6961702932    0.0842822888
  -0.4523229865   -0.5700442511   -0.6858961056
  -0.9236349380    0.0387502548   -0.3813094793
   0.0803777428   -0.9880096495    0.1318193873
  -0.5512234752   -0.3067652052    0.7759173856
   0.8100473741   -0.4084466312   -0.4207072631
  -0.8673976187    0.3935431472    0.3045409042
  -0.9092106059   -0.1100131750    0.4015385106
   0.6912066863   -0.2810767391   -0.6657545971
   0.7352545791    0.0325380088   -0.6770095878
  -0.4910220219    0.6894278922    0.5325284550
  -0.3704369697    0.4839808096   -0.7928045329
  -0.0532467574   -0.5694812361    0.8202779435
  -0.2358063179   -0.0818065736   -0.9683506932
  -0.6266945781    0.4632642352   -0.6266100495
   0.5219335328    0.2000674169   -0.8291914230
   0.2786575046    0.8688945043    0.4091116419
   0.3644330070    0.1276800607    0.9224350305
  -0.3170225509    0.2074290343   -0.9254565889
  -0.2149994379    0.6885125733    0.6926223199
  -0.6846111428   -0.5218893707   -0.5088605584
  -0.9677260755   -0.1779331696   -0.1784545600
   0.8888050210    0.1604062969   -0.4292964646
   0.7878249610    0.5298467638    0.3139971940
  -0.7454708710   -0.0083869082   -0.6664854389
  -0.4723897445   -0.8592868339    0.1961480727
  -0.1547067520    0.7042709913   -0.6928695345
   0.1217798938   -0.9043633420    0.4090190743
  -0.2583516337    0.8532942764   -0.4529274900
   0.9790179502   -0.0788017100   -0.1879205779
  -0.4042784236    0.2339017611    0.8842222132
  -0.7677195238   -0.3300437750    0.5492520727
  -0.0379182791   -0.9045290940   -0.4247226415
   0.2224565583   -0.4625918019    0.8582085437
  -0.7119773285   -0.6679990542   -0.2164845196
  -0.5808386015   -0.5474800377    0.6024052849
   0.1185921559    0.6152375699   -0.7793706648
  -0.2420216883   -0.0906713438    0.9660249530
  -0.5681769765    0.8228982087   -0.0036690028
  -0.3572458458   -0.3463797301   -0.8674079134
  -0.4134295342   -0.7808140624    0.4684073229
  -0.5086233613   -0.8557279496   -0.0950365856
  -0.5470817811    0.7814866139   -0.2999669933
   0.6377837960   -0.7238315840    0.2632483004
   0.7889469046    0.0201295587    0.6141315678
   0.8285916639   -0.4539262775    0.3276992357
   0.0617050111   -0.7527150202   -0.6554483885
   0.2211696892    0.3570195562   -0.9075356770
   0.2938560983    0.0666878965   -0.9535204864
   0.7054161462    0.3344548795   -0.6249223906
   0.8796595382   -0.1298348701   -0.4575390730
  -0.8041551786    0.2572207353   -0.5358842618
  -0.2417139445    0.8621715773    0.4452353764
  -0.5114150157   -0.0319094447    0.8587412119
  -0.3247056878    0.9335911628   -0.1515709638
   0.7488410343   -0.2835429971    0.5990329491
   0.1424735910   -0.7368234701    0.6609027536
   0.3660639463    0.4320890064    0.8241943204
   0.6111494856   -0.5881793161   -0.5296615886
   0.5903826577   -0.8068844315   -0.0196425986
  -0.9179830522    0.3959760598    0.0225848621
   0.0008021743   -0.2845869808    0.9586498875
   0.8143230450   -0.5773772572    0.0592746249
   0.9552040582   -0.2760147516    0.1067757656
   0.4462260873    0.4774835234   -0.7568961381
   0.5215283811   -0.3628267677    0.7722466474
   0.4049574664   -0.7968015094    0.4484604833
   0.0559193552   -0.0987205638   -0.9935427902
   0.6412701676   -0.5632640370    0.5210625651
   0.3296889920    0.7124925879   -0.6194025192
  -0.5783128641    0.2205185684   -0.7854462376
  -0.0537526441   -0.3600592422   -0.9313796194
  -0.7201500404   -0.6894748910    0.0775131858
  -0.0197786978    0.1827674199   -0.9829572083
  -0.2288417357   -0.9731181047    0.0259348107
   0.3218196824   -0.9407815824   -0.1065931813
   0.5207605463   -0.1165352631   -0.8457115264
   0.6803541085    0.6932404825   -0.2377728337
  -0.6778640583   -0.6456314342    0.3516537638
   0.3736718784   -0.9094127366    0.1825864229
   0.2396729822    0.9661099898    0.0958558771
  -0.9006750920    0.3440658476   -0.2653357706
   0.8220331732    0.4414803089   -0.3596617842
  -0.8622767199   -0.4164754508    0.2881441604
   0.2208570423    0.9509938665   -0.2164089480
   0.4900496871    0.8672273554   -0.0881363617
  -0.3280219615   -0.6106445803    0.7207737435
   0.5867367244    0.5022480018    0.6352062349
   0.9238395135    0.1310353182    0.3596530254
  -0.4591393495    0.4882522280    0.7421595648
  -0.5137077678    0.8102341574    0.2821789139
   0.0823373257    0.8440890706   -0.5298435671
  -0.8913712904   -0.4532497923    0.0046742190
  -0.0498294724    0.9547377218   -0.2932454710
