  -0.3391547740   -0.7933804738   -0.5054913087
  -0.5326027563   -0.1639615682    0.8303318061
   0.2901907642    0.3685122346    0.8831693232
  -0.1300892597   -0.6391754988    0.7579785395
   0.6199763204   -0.6346639512    0.4613361368
   0.2567721274   -0.2876255483    0.9226806699
  -0.4562289618    0.6634604814   -0.5930221952
   0.8658644258   -0.4173245224   -0.2758967909
  -0.3055375152   -0.9053744712    0.2948624996
   0.7372988146    0.4645908103   -0.4904547247
   0.1437745367   -0.4221659764   -0.8950445637
   0.7763375753    0.2133763323   -0.5931024448
   0.6459206143   -0.0039815328    0.7633942018
   0.7116885291    0.0029791941   -0.7024888341
  -0.7398539395   -0.6348514075   -0.2226653061
  -0.1941884631    0.2554418118    0.9471221260
   0.7523336821   -0.6273610387   -0.2010277543
   0.0054005985    0.6600640595    0.7511899034
  -0.0436603852    0.9092280500   -0.4140025651
   0.3365858004    0.0657761878   -0.9393526984
  -0.1289481457   -0.4566302639   -0.8802619938
  -0.3754601311    0.0489901359    0.9255428983
  -0.2122174051    0.9508182198   -0.2256290892
  -0.0913462866    0.9948816802    0.0432006759
  -0.4919599503   -0.6093689741   -0.6218077361
  -0.0127562005    0.6474533129   -0.7619983510
  -0.3704807302   -0.9019436660   -0.2219046008
  -0.3326780384    0.9430303910   -0.0043593979
  -0.0877328068   -0.9850623282    0.1481727512
  -0.2714916481    0.5960502313   -0.7556562755
  -0.5998676857    0.0936634223    0.7945979631
   0.0514824461    0.2006553639    0.9783082248
   0.1942964011   -0.7657232534   -0.6131205491
  -0.9094091550   -0.0306388325    0.4147725288
  -0.1609154303   -0.9209291842   -0.3549586765
   0.6675148306    0.7330362605    0.1306973289
  -0.0301822756    0.8384680015    0.5441143635
  -0.5674425919    0.8219787593    0.0485780210
   0.4243954586   -0.0771570231    0.9021836224
  -0.8269865092   -0.2526894371    0.5022363607
  -0.2383642779    0.6967726631    0.6765281421
  -0.4669590612    0.7125726455    0.5236310343
  -0.6778043122    0.3093599202   -0.6669915697
   0.1527636983   -0.9868530596    0.0527663844
   0.0482892896    0.9848506814   -0.1665451283
  -0.6074584336   -0.5698384253    0.5534242681
   0.1875398836   -0.9368702781    0.2951319603
   0.7864388265   -0.3933978337    0.4761849604
  -0.0929616366    0.9531007668    0.2880226770
   0.0904968590    0.4721415748   -0.8768652415
  -0.4329438519   -0.0287729010   -0.9009615648
  -0.5728970594   -0.8146881887   -0.0898449469
  -0.6477685365    0.3211273263    0.6908495954
  -0.2091197470    0.4927288621    0.8446817151
  -0.0858717378   -0.7978357350   -0.5967278983
  -0.3581547756    0.9033236617    0.2360752400
   0.5987424382   -0.4634834237    0.6532155913
   0.6477422003   -0.2700482322   -0.7123931458
  -0.9711304408   -0.2384800979   -0.0057367202
   0.1678200064   -0.6573257574    0.7346831250
  -0.2051710648   -0.4401319519    0.8741788714
   0.3710172750    0.7659734746   -0.5250055408
   0.4343288195   -0.8146826583    0.3842533577
   0.7650046481   -0.4031678369   -0.5022186612
  -0.9382468579    0.2613625101   -0.2266770214
   0.4062488424   -0.9031159212    0.1390809510
  -0.3401386968   -0.9397248644    0.0349692176
   0.7004063378    0.2662365547    0.6622303670
   0.9880885471   -0.1451053386   -0.0512392801
   0.4139139105   -0.6664328433    0.6201149410
  -0.9328126614   -0.2527380242    0.2568735680
   0.8966925521    0.0485224625   -0.4399864062
  -0.6559443482   -0.3538624756    0.6667221014
   0.5280678651   -0.2744593099    0.8036270386
   0.8880844779   -0.1543952968    0.4329758105
  -0.5686909088    0.7660551762    0.2995832393
   0.8368944300    0.3198760217    0.4441700619
   0.2931082217    0.1279008363    0.9474855917
   0.4614284354    0.6547395550    0.5986651102
   0.9202691533   -0.3901885873   -0.0292839865
   0.2199820468   -0.8239832416    0.5221680923
   0.6240394740   -0.7516847435    0.2134122331
  -0.7410227420    0.5826720956    0.3337342130
  -0.1198913588   -0.9871860865   -0.1053076103
  -0.9245889635    0.0380152952   -0.3790647515
  -0.8782975056    0.4716541316   -0.0783318063
  -0.3951630316   -0.4611726942   -0.7944595172
  -0.7347112737   -0.0902277191    0.6723528114
  -0.5291961423   -0.2549747836   -0.8092832030
  -0.4795627682    0.8543656758   -0.2001970114
  -0.2609431891   -0.8008604840    0.5390094037
   0.6200252705    0.6711792459   -0.4063090988
   0.5139036159   -0.1151073312   -0.8500902163
  -0.8159679930    0.3568653294    0.4548003639
  -0.2429985118   -0.6464858959   -0.7231927196
   0.6886882689    0.7093202650   -0.1502439017
   0.7886017800    0.5414899029    0.2913690403
   0.2079591463    0.7731007525    0.5992230136
  -0.9925646867    0.0120712761   -0.1211182358
   0.9381380448    0.3353665754   -0.0861758031
  -0.6543513414    0.5215696099   -0.5475303316
   0.1206409763    0.7978690585   -0.5906358610
  -0.6737484451   -0.3721062833   -0.6384355463
   0.6753996454    0.5085056149    0.5340948966
   0.5142152602    0.1994713982    0.8341425702
   0.5431558052    0.1742475478   -0.8213522773
  -0.1678498154    0.7853796683   -0.5958231416
  -0.8846079362   -0.4484436615   -0.1279338962
   0.4650211435    0.8374964719   -0.2869756012
   0.0392334255    0.4443433198    0.8949970684
   0.3869910291    0.3991755823   -0.8312020199
   0.6593094668   -0.6122286252   -0.4364483216
  -0.8027953959    0.1365244041    0.5804141964
   0.0844058181    0.0154515584   -0.9963116516
  -0.4414860990    0.5260230069    0.7269042719
   0.9352716428    0.1110393446    0.3360613308
  -0.1856853946    0.0036843137   -0.9826023408
   0.6031965926   -0.7969142576   -0.0328867270
   0.8181673670    0.5195245803   -0.2463663328
  -0.8875153052    0.4224699114    0.1839449836
   0.6055559306    0.3668238998   -0.7062168515
   0.9205847730    0.3436852513    0.1854834863
   0.2516413293   -0.1875804310   -0.9494683898
   0.3588238296   -0.4828711402    0.7987996753
   0.9376929673   -0.1763745097   -0.2993725630
   0.2938219343    0.9507372194   -0.0988302104
   0.2612505711    0.5860068855    0.7670358983
  -0.4667120429    0.4242344360   -0.7760186933
   0.0761649751   -0.9008125955   -0.4274758056
  -0.7927257694   -0.4671296034    0.3916322103
   0.7342427689   -0.2078850071    0.6462750035
   0.2633688435    0.6204304739   -0.7387170496
   0.5988685098    0.7120734607    0.3664804149
   0.4163650220   -0.3565590433   -0.8363646437
   0.1373617809   -0.0690272472    0.9881128378
  -0.6393458966    0.5325111624    0.5546789039
  -0.5931285268    0.7069725053   -0.3852121849
  -0.8304368764   -0.1806761264   -0.5270016429
   0.5076463084    0.4432787599    0.7387822187
  -0.9892302221   -0.0180276524    0.1452534731
  -0.3849749632   -0.6256560874    0.6784900427
   0.1186376417   -0.9739738793   -0.1931320597
   0.9126691713   -0.3444604316    0.2199590754
  -0.8334382763   -0.3970072789   -0.3844032518
  -0.4889220243   -0.7591875459    0.4296388301
   0.8909421570    0.2943745226   -0.3457827545
  -0.7586825176    0.6452627078    0.0896486216
   0.3811738597    0.8262978210    0.4146545546
   0.4073551551    0.8948412330    0.1825402568
   0.4390620932   -0.7148218230   -0.5442924211
   0.9757874415   -0.1030764700    0.1929095913
   0.5455048492   -0.7891142782   -0.2823528208
  -0.9731767277    0.2279772915    0.0308773577
   0.1602692957    0.9803606340    0.1149207558
   0.3078829768   -0.5806206778   -0.7537159286
  -0.3450994848    0.8382782619   -0.4221325636
  -0.5431531844   -0.7598877727   -0.3571486961
  -0.8719769914   -0.4706162007    0.1348203177
   0.8332543943    0.5522537230    0.0265130147
   0.7972140651   -0.6023592296    0.0401633290
  -0.9347671988    0.1912497341    0.2993890833
  -0.2679707581    0.8475151583    0.4581590654
   0.0721301341   -0.4771466323    0.8758586273
  -0.5350484425   -0.8280406992    0.1675463059
  -0.0519119799   -0.9197264576    0.3891123098
  -0.7069401646    0.6908542043   -0.1515126139
  -0.7972823416    0.0852041063   -0.5975626562
  -0.6912798738   -0.6632365466    0.2867915955
  -0.3442219182    0.2288938732   -0.9105596443
   0.3211809948   -0.8718729970   -0.3697029155
  -0.6782252697   -0.0904051047   -0.7292718290
  -0.6793833487   -0.5668359164   -0.4659777993
  -0.4455322288   -0.4125328023    0.7945550454
  -0.8384346839    0.2998722736   -0.4550866954
  -0.2969382379   -0.2043689610    0.9327706099
  -0.4303015691    0.3017374741    0.8507614568
   0.8198266557    0.0563180561    0.5698355299
   0.9906365684    0.1201346251    0.0648603214
  -0.1787872437    0.4386144094   -0.8807113723
   0.8285316524   -0.1595343657   -0.5367346525
  -0.0141292553   -0.7951644017    0.6062292787
   0.0341874053   -0.6311750625   -0.7748866122
  -0.7458567155   -0.6652119521    0.0345082396
   0.3713488872   -0.9216749119   -0.1123181227
  -0.0206191387   -0.2272825594   -0.9736105429
   0.5518566989   -0.5062782801   -0.6626737410
   0.9782946646    0.0817723530   -0.1904017633
   0.1513105651    0.9204089917    0.3604891134
  -0.2762534361   -0.2478419088   -0.9285787136
  -0.7961994055    0.5129059907   -0.3209267072
  -0.9422567786   -0.2015577031   -0.2674446774
  -0.0592109628    0.2237948467   -0.9728360234
   0.7860264741   -0.5519151384    0.2784817087
   0.5177368856    0.8549211729   -0.0325316059
  -0.5703088295    0.1458568822   -0.8083771452
   0.5048049983    0.5833085528   -0.6363356393
   0.2069381672    0.2454849075   -0.9470553073
  -0.0316789259   -0.2596776107    0.9651756235
   0.2176737178    0.9072608058   -0.3598555027
  -0.1240018287   -0.0049038537    0.9922698719
