   0.2931084876   -0.4514903171    0.8427596977
   0.3582529322    0.9332508799   -0.0264127183
  -0.5444578246    0.3456551944   -0.7642566086
  -0.6050601854    0.7951466514    0.0405459597
  -0.1332945426   -0.9909879377    0.0132465937
   0.7716808545   -0.6335514528   -0.0558678386
  -0.4147741406   -0.8298924798   -0.3731499487
   0.4106827239    0.5412804884   -0.7337268791
   0.8589671497    0.2178589486    0.4633712489
  -0.1496043727    0.9887034251    0.0091689119
   0.7240451716    0.6569751160    0.2101006579
   0.0799197250   -0.8612642773   -0.5018333211
   0.1985555829    0.8716410929    0.4481266402
   0.0394204679    0.5095985088    0.8595088054
  -0.8553624399    0.0376588023    0.5166593762
  -0.9641940800   -0.2557334674    0.0702151682
   0.9558091827   -0.2213424023    0.1934847468
   0.3578197533   -0.9334738091   -0.0243243050
   0.1514143184   -0.8586209513    0.4897384672
  -0.9548493633    0.2893664457    0.0673034443
  -0.3567446784   -0.8266940723    0.4350978571
   0.6859776459    0.6568421934   -0.3130383398
   0.6174274848   -0.2421205122   -0.7484390146
  -0.7864224837   -0.4731474180   -0.3970783273
   0.7192396534   -0.2415724651    0.6514115942
   0.5124999653    0.5418225986    0.6661621853
  -0.7731847116    0.5269843767   -0.3528071263
  -0.7214214198   -0.4694115645    0.5091207305
   0.7828275985    0.2175903080   -0.5829540367
  -0.6869499920   -0.7248250991    0.0522329802
  -0.4297902652    0.3515555902    0.8316784204
  -0.3085687349   -0.5474054062   -0.7779027298
  -0.0325838309   -0.0249761466    0.9991568876
   0.5398113638   -0.6758106184   -0.5018801645
   0.9177389701   -0.2214786392   -0.3297004628
  -0.3596295939    0.8033968217   -0.4745736003
   0.1687951491   -0.4543876350   -0.8746656932
  -0.6229663418   -0.1530526496   -0.7671296001
  -0.9203798645    0.0339758892   -0.3895465877
   0.3022405539    0.0973187381   -0.9482508691
  -0.0848986837    0.5067109811   -0.8579255184
   0.4361209765    0.0985236721    0.8944783843
  -0.7151531367    0.5301969379    0.4554637178
  -0.1939013049   -0.5415163736    0.8180234111
  -0.5069585474   -0.1466581393    0.8494023907
  -0.2881265708    0.8060307399    0.5170082452
   0.6067525272   -0.6752014233    0.4194691988
   0.9641878827    0.2557530104   -0.0702290864
  -0.1756230941   -0.0302644096   -0.9839921719
   0.1316041556    0.8710420245   -0.4732506078
