  -0.2916877995   -0.4863289227    0.8236518722
  -0.0885984721    0.2573480384   -0.9622485634
   0.4238972395    0.7290303255   -0.5374252644
   0.1759324831   -0.8126134156   -0.5556142530
   0.8026148968   -0.3478824134   -0.4845484021
  -0.0305121043    0.2519887053    0.9672490392
   0.9860444994   -0.1514526713   -0.0691254913
  -0.8212979949    0.1113747787    0.5595223519
  -0.8595944417    0.4904915770   -0.1432320102
   0.2962307744    0.5263604064    0.7969893669
  -0.5605293430    0.7398148875   -0.3721300685
  -0.9505080087    0.1004067229   -0.2940289365
   0.7523370016   -0.0763770370    0.6543359872
  -0.7339179699    0.3690750988   -0.5702174891
  -0.8449821755    0.4492568027    0.2901266074
   0.6879266074    0.3710424868    0.6237663471
  -0.5168791165    0.1078089357   -0.8492427287
   0.2862727824   -0.8418439136    0.4575442266
  -0.4837401381   -0.4018659802   -0.7774954744
  -0.1580772835    0.8440821841   -0.5123834882
  -0.9431260060   -0.3028338105   -0.1371313970
   0.9397583394    0.1151929109    0.3218460142
   0.0914025732    0.6253161609   -0.7750001733
  -0.3589634421   -0.0521743304    0.9318922076
   0.8038311036    0.5510852668    0.2239655903
   0.0885591245    0.8229423497    0.5611801588
   0.1393030634   -0.6020203775    0.7862354110
   0.6068248906   -0.7751394591    0.1758475790
  -0.5051374349   -0.8294197625   -0.2385351742
  -0.2848870331   -0.7423838011   -0.6063873928
   0.2313239251   -0.1305179253   -0.9640821090
  -0.9882273270    0.0695120549    0.1362894875
   0.1868603733    0.9431606489   -0.2748293857
  -0.5238901033    0.2999601170    0.7972221070
   0.8909777169    0.0785193700   -0.4472062349
   0.6687371289    0.3848644557   -0.6361367803
  -0.1948350307    0.5975443058    0.7778046756
   0.5729247270   -0.7183072823   -0.3947048333
   0.4454508854   -0.4809614106   -0.7551487471
   0.5303173928    0.8477715376   -0.0068471069
  -0.7859441253   -0.1293947403   -0.6046063456
  -0.7646665476   -0.6408762195    0.0675480734
  -0.8910613272   -0.3094363506    0.3320524899
  -0.2426382203    0.9653368586   -0.0961844240
   0.6216897107   -0.0615635869   -0.7808404628
   0.4069812375    0.1284258405    0.9043633538
  -0.1974051388   -0.1613107916   -0.9669591717
   0.3396261517   -0.9336492118   -0.1138122421
  -0.4048655202   -0.8976228403    0.1742330255
  -0.6614002464   -0.2553284066    0.7052355059
  -0.3712339994    0.5371872302   -0.7573738822
   0.7502915979    0.6049062597   -0.2667413261
   0.0097545602   -0.5266420360   -0.8500311844
  -0.6125820355    0.7865310746    0.0781800386
  -0.7276539494   -0.5327362257   -0.4321016589
  -0.2743652346    0.8969959858    0.3465860925
  -0.1779205229   -0.8158473724    0.5502157327
   0.3459303117    0.2942714137   -0.8909189382
   0.8825889968   -0.3488364249    0.3151980510
   0.1433641946    0.9766415073    0.1600564709
   0.0190262932   -0.9851670222    0.1705401374
  -0.0957882179   -0.9641647250   -0.2474085698
   0.6095139393   -0.5582127651    0.5629309609
   0.8295910523   -0.5516518595   -0.0863649917
  -0.5937160447   -0.6364366031    0.4923918242
  -0.5606789837    0.6357097943    0.5305771713
   0.4411946227   -0.2988270253    0.8461972074
   0.0459498542   -0.1905738346    0.9805968715
   0.9542163648    0.2877118085   -0.0818110283
   0.4934645307    0.7524864295    0.4361845141
